-2.378 103.218 14.72 -0.701 0.665 -0.256
-13.691 123.899 7.109 0.654 -0.702 -0.278
13.384 124.916 -9.487 -0.538 -0.005 -0.842
-28.566 122.415 5.686 -0.185 -0.217 -0.958
6.622 97.563 -31.783 -0.701 0.469 -0.536
-4.691 112.339 -48.133 0.654 -0.751 0.08
22.384 105.527 -63.3 -0.538 -0.395 -0.743
-19.566 110.363 -48.703 -0.185 -0.638 -0.747
15.622 70.946 -70.331 -0.701 0.165 -0.693
4.309 76.431 -91.675 0.654 -0.628 0.42
31.384 63.35 -101.939 -0.538 -0.696 -0.474
-10.566 74.417 -91.261 -0.185 -0.912 -0.365
24.622 29.463 -92.094 -0.701 -0.175 -0.69
13.309 24.401 -113.542 0.654 -0.36 0.664
40.384 8.049 -116.552 -0.538 -0.837 -0.096
-1.566 22.81 -112.239 -0.185 -0.977 0.1
33.622 -17.382 -92.086 -0.701 -0.476 -0.53
22.309 -31.831 -108.725 0.654 -0.01 0.755
49.384 -47.71 -103.791 -0.538 -0.786 0.303
7.435 -32.636 -106.832 -0.185 -0.818 0.543
42.622 -58.858 -70.309 -0.701 -0.668 -0.248
31.309 -79.384 -78.327 0.654 0.341 0.674
58.384 -91.151 -66.579 -0.538 -0.554 0.634
16.435 -79.217 -76.278 -0.185 -0.472 0.861
51.622 -85.462 -31.752 -0.701 -0.706 0.09
40.309 -107.363 -29.312 0.654 0.616 0.438
67.384 -112.323 -13.442 -0.538 -0.196 0.819
25.435 -106.263 -27.576 -0.185 -0.018 0.982
60.622 -91.101 14.753 -0.701 -0.584 0.408
49.309 -109.36 27.091 0.654 0.749 0.101
76.384 -106.376 43.448 -0.538 0.206 0.816
34.435 -107.578 28.118 -0.185 0.44 0.878
69.622 -74.482 58.551 -0.701 -0.327 0.633
58.309 -84.916 77.961 0.654 0.71 -0.257
85.384 -74.672 91.058 -0.538 0.562 0.627
43.435 -82.861 78.042 -0.185 0.798 0.573
78.622 -39.413 89.609 -0.701 0.004 0.713
67.309 -39.631 111.644 0.654 0.509 -0.558
94.384 -24.474 118.481 -0.538 0.789 0.294
52.435 -37.774 110.761 -0.185 0.973 0.136
87.622 6.073 100.812 -0.701 0.335 0.628
76.309 16.121 120.425 0.654 0.191 -0.731
103.384 32.718 119.434 -0.538 0.835 -0.106
61.435 17.355 118.78 -0.185 0.924 -0.331
96.622 51.555 89.594 -0.701 0.589 0.401
85.309 69.566 102.291 0.654 -0.17 -0.736
112.384 83.802 93.7 -0.538 0.69 -0.483
70.435 69.894 100.261 -0.185 0.665 -0.723
105.622 86.614 58.524 -0.701 0.708 0.081
94.309 108.463 61.397 0.654 -0.493 -0.573
121.384 117.076 47.174 -0.538 0.387 -0.748
79.435 107.81 59.447 -0.185 0.252 -0.949
39.057 102.384 14.619 -0.017 -0.525 0.85
53.331 124.899 -8.386 -0.683 0.492 -0.539
36.453 121.233 -4.011 0.988 0.147 0.016
12.616 122.434 5.625 -0.19 -0.224 -0.955
48.057 96.778 -31.485 -0.016 -0.069 0.997
62.331 106.023 -62.318 -0.683 0.184 -0.706
45.453 104.81 -56.739 0.988 0.138 -0.054
21.616 110.352 -48.767 -0.19 -0.642 -0.742
57.057 70.389 -69.702 -0.016 0.402 0.915
71.331 64.247 -101.3 -0.683 -0.164 -0.711
54.453 65.765 -95.796 0.988 0.097 -0.112
30.616 74.376 -91.313 -0.19 -0.913 -0.358
66.057 29.262 -91.278 -0.017 0.781 0.623
80.331 9.139 -116.402 -0.683 -0.476 -0.553
63.453 13.041 -112.235 0.988 0.034 -0.144
39.616 22.75 -112.267 -0.19 -0.975 0.106
75.057 -17.181 -91.27 -0.017 0.981 0.188
89.331 -46.675 -104.165 -0.683 -0.679 -0.268
72.453 -41.283 -102.288 0.988 -0.037 -0.144
48.616 -32.701 -106.829 -0.19 -0.814 0.548
84.057 -58.3 -69.68 -0.017 0.957 -0.288
98.331 -90.408 -67.392 -0.683 -0.726 0.078
81.453 -84.762 -68.236 0.988 -0.099 -0.11
57.616 -79.273 -76.244 -0.19 -0.466 0.863
93.057 -84.676 -31.454 -0.017 0.713 -0.7
107.331 -112.043 -14.506 -0.683 -0.606 0.406
90.453 -107.435 -17.878 0.988 -0.14 -0.051
66.616 -106.297 -27.52 -0.19 -0.011 0.981
102.057 -90.266 14.651 -0.017 0.305 -0.951
116.331 -106.622 42.375 -0.683 -0.348 0.641
99.453 -104.109 37.249 0.988 -0.148 0.019
75.616 -107.582 28.183 -0.19 0.445 0.874
111.057 -73.79 58.073 -0.017 -0.171 -0.985
125.331 -75.389 90.223 -0.683 -0.009 0.73
108.453 -75.546 84.516 0.988 -0.121 0.085
84.616 -82.834 78.102 -0.19 0.801 0.566
120.057 -39.023 88.865 -0.017 -0.609 -0.792
134.331 -25.497 118.074 -0.683 0.33 0.651
117.453 -28.288 113.094 0.988 -0.067 0.132
93.616 -37.723 110.802 -0.19 0.973 0.129
129.057 6.073 99.971 -0.017 -0.908 -0.418
143.331 31.624 119.55 -0.683 0.595 0.423
126.453 26.838 116.437 0.988 0.001 0.148
102.616 17.419 118.792 -0.19 0.921 -0.337
138.057 51.164 88.85 -0.017 -0.998 0.051
152.331 82.887 94.311 -0.683 0.723 0.097
135.453 77.203 93.78 0.988 0.07 0.131
111.616 69.956 100.242 -0.19 0.659 -0.727
147.057 85.922 58.046 -0.017 -0.86 0.509
161.331 116.549 48.14 -0.683 0.686 -0.249
144.453 111.269 50.311 0.988 0.123 0.083
120.616 107.856 59.401 -0.19 0.245 -0.95
